1046.78 -9.39869 11.9974
19.0415 -2.51139 -1.63879
19.315 -2.61587 -1.66373
19.3215 -2.68532 -1.66514
19.0931 -2.72151 -1.64581
19.1308 -2.79494 -1.65001
19.4579 -2.91193 -1.67984
19.3453 -2.96403 -1.6708
19.1105 -2.99633 -1.65095
18.8993 -3.03079 -1.63319
18.8453 -3.08954 -1.62938
19.2176 -3.21934 -1.6634
18.9785 -3.24737 -1.64321
18.9317 -3.30738 -1.6401
19.1673 -3.41738 -1.66209
19.2653 -3.50321 -1.67143
19.249 -3.56962 -1.67111
19.0328 -3.59829 -1.65302
19.0045 -3.66161 -1.65166
19.1696 -3.76278 -1.66755
19.1055 -3.81945 -1.66306
19.0569 -3.87892 -1.65996
18.6687 -3.86777 -1.62653
18.8949 -3.98338 -1.64801
18.881 -4.04928 -1.64805
18.9349 -4.12994 -1.65419
18.5507 -4.11403 -1.6211
18.9853 -4.27991 -1.66141
19.0443 -4.36195 -1.66762
18.8815 -4.39402 -1.65442
18.9843 -4.4878 -1.66509
18.8872 -4.53448 -1.65781
18.8344 -4.59139 -1.65454
18.4915 -4.57615 -1.62513
19.1266 -4.80422 -1.68391
18.7738 -4.78528 -1.65363
18.7821 -4.85729 -1.65594
18.8478 -4.94452 -1.66348
18.6614 -4.96394 -1.64773
18.4516 -4.97718 -1.63034
18.6782 -5.10827 -1.65252
18.6852 -5.18031 -1.65483
18.5731 -5.21904 -1.64633
18.5163 -5.27295 -1.64289
18.3351 -5.29054 -1.62811
18.8616 -5.51386 -1.67783
18.4831 -5.4733 -1.6451
18.4486 -5.5332 -1.64375
18.4482 -5.60333 -1.64553
18.1091 -5.56789 -1.61585
18.7154 -5.82596 -1.67323
18.5352 -5.84086 -1.65863
18.8071 -5.99884 -1.68551
18.4959 -5.97073 -1.65888
18.2553 -5.96346 -1.63869
18.5219 -6.12214 -1.66523
18.4815 -6.18046 -1.66352
18.4089 -6.22769 -1.65884
18.519 -6.33705 -1.67108
18.2576 -6.31881 -1.64898
18.1094 -6.33836 -1.63733
18.4628 -6.53456 -1.67223
18.4855 -6.61343 -1.676
18.2675 -6.6074 -1.6579
17.8963 -6.54375 -1.62551
17.9369 -6.6296 -1.63146
18.0779 -6.75351 -1.64683
18.4642 -6.97145 -1.6852
18.0024 -6.86878 -1.64426
18.2739 -7.04555 -1.672
17.9354 -6.98696 -1.64256
18.0852 -7.11807 -1.65896
18.1917 -7.23339 -1.67136
18.183 -7.30348 -1.67294
17.9672 -7.28959 -1.655
17.855 -7.31663 -1.64682
17.5687 -7.28441 -1.62264
17.9295 -7.50622 -1.65906
17.8424 -7.54405 -1.65354
17.5102 -7.47482 -1.62424
17.7911 -7.66917 -1.65376
18.121 -7.88528 -1.68757
17.9021 -7.86354 -1.66909
17.8305 -7.90752 -1.66515
17.2813 -7.73533 -1.61495
17.4625 -7.89084 -1.63525
17.6329 -8.04096 -1.65408
17.8405 -8.20981 -1.67657
17.6269 -8.18751 -1.65905
18.1255 -8.49491 -1.70978
17.3927 -8.22704 -1.64207
17.0586 -8.14107 -1.61227
17.2621 -8.31119 -1.6346
17.3256 -8.41771 -1.64393
17.6043 -8.62813 -1.67376
17.387 -8.596 -1.6553
17.178 -8.56884 -1.63814
17.3282 -8.71834 -1.6556
17.4605 -8.86285 -1.6719
17.1214 -8.765 -1.64142
17.1584 -8.8586 -1.6479
17.0684 -8.88927 -1.64242
16.9954 -8.92572 -1.6381
16.9698 -8.987 -1.63848
16.9676 -9.06333 -1.64171
16.8661 -9.0839 -1.6346
16.8313 -9.14001 -1.63411
16.6815 -9.13579 -1.6227
16.6535 -9.1951 -1.62292
16.8881 -9.40064 -1.64945
17.056 -9.5739 -1.66994
16.5078 -9.34118 -1.61803
16.4532 -9.38508 -1.61564
16.6234 -9.56091 -1.63647
16.6214 -9.63603 -1.63948
16.9322 -9.89424 -1.6742
16.4023 -9.66332 -1.62427
16.5986 -9.85598 -1.6475
16.5099 -9.88031 -1.64178
16.5206 -9.96695 -1.64676
16.3007 -9.91089 -1.62762
16.4313 -10.0679 -1.64439
16.3799 -10.117 -1.64309
16.2453 -10.1111 -1.63267
16.418 -10.2972 -1.65397
16.4316 -10.3877 -1.65946
16.3219 -10.397 -1.65166
16.2828 -10.4509 -1.65117
16.1383 -10.4396 -1.64027
16.331 -10.6441 -1.66401
16.1611 -10.6126 -1.64993
16.1214 -10.6691 -1.65001
15.7415 -10.4956 -1.61378
15.9005 -10.6807 -1.63421
15.8293 -10.715 -1.63097
15.8402 -10.8018 -1.63588
16.1644 -11.1077 -1.67465
15.7314 -10.8897 -1.63249
15.7005 -10.9482 -1.63303
15.6042 -10.964 -1.62716
15.8626 -11.227 -1.65874
15.6147 -11.1354 -1.63666
15.5603 -11.1772 -1.63476
15.6301 -11.3087 -1.64628
15.7345 -11.47 -1.6622
15.6004 -11.4542 -1.65175
15.6924 -11.6081 -1.66644
15.4242 -11.4914 -1.64134
15.5744 -11.6864 -1.66192
15.3705 -11.6193 -1.64436
15.28 -11.633 -1.63861
15.5149 -11.9032 -1.66948
15.3985 -11.8977 -1.66094
15.0587 -11.7214 -1.62822
14.8853 -11.6684 -1.61326
15.5069 -12.2414 -1.68683
15.073 -11.9868 -1.64349
15.0615 -12.062 -1.64666
15.0989 -12.1808 -1.65596
14.9549 -12.1496 -1.64432
14.8685 -12.1642 -1.63913
14.9172 -12.2934 -1.64983
14.7492 -12.2402 -1.63541
15.0634 -12.5883 -1.6759
14.7789 -12.4409 -1.64878
14.9276 -12.6538 -1.67063
14.5946 -12.458 -1.63722
14.713 -12.6506 -1.65629
14.7855 -12.8014 -1.6696
14.6965 -12.8129 -1.66426
14.6323 -12.8499 -1.66242
14.3283 -12.6705 -1.63199
14.5838 -12.9859 -1.66692
14.3011 -12.8268 -1.63946
14.2051 -12.8291 -1.63326
14.3792 -13.0762 -1.65896
14.3725 -13.1605 -1.6634
14.3805 -13.2636 -1.67028
14.1451 -13.1367 -1.64753
14.3313 -13.4016 -1.67515
13.9805 -13.164 -1.63846
14.1425 -13.4131 -1.66399
13.811 -13.1893 -1.62938
13.8517 -13.3195 -1.63975
13.8136 -13.3791 -1.64123
13.6419 -13.3042 -1.6258
13.7682 -13.5199 -1.64681
13.6946 -13.5405 -1.64341
13.6739 -13.618 -1.64715
13.5454 -13.5832 -1.63695
13.7048 -13.8377 -1.66249
13.4713 -13.6958 -1.63923
13.3507 -13.6717 -1.63058
13.3897 -13.8062 -1.64131
13.6848 -14.208 -1.68445
13.4418 -14.052 -1.65979
13.041 -13.732 -1.61558
13.0717 -13.8594 -1.62543
13.246 -14.1412 -1.65376
12.9843 -13.9576 -1.62631
12.9189 -13.9883 -1.62462
13.1859 -14.3762 -1.66533
12.9929 -14.2638 -1.64659
12.9519 -14.3224 -1.64822
12.9639 -14.435 -1.65615
12.8561 -14.4139 -1.64838
12.9096 -14.5743 -1.66189
12.7543 -14.504 -1.64852
12.3913 -14.189 -1.60676
12.7498 -14.701 -1.66105
12.5238 -14.5461 -1.63809
12.5956 -14.7312 -1.65437
12.6793 -14.9322 -1.6724
12.706 -15.0738 -1.6836
12.3424 -14.7444 -1.64096
12.5556 -15.1037 -1.67694
12.534 -15.1888 -1.68168
12.4756 -15.2238 -1.68069
12.3507 -15.1767 -1.67047
12.2772 -15.1978 -1.66805
12.0644 -15.0391 -1.64545
12.4147 -15.5906 -1.70247
12.1182 -15.3249 -1.66801
12.1397 -15.4601 -1.67835
12.0093 -15.4077 -1.66789
11.919 -15.3996 -1.66236
11.9488 -15.593 -1.67738
11.8023 -15.5093 -1.66358
11.7882 -15.6051 -1.66959
11.832 -15.779 -1.68416
11.7016 -15.7148 -1.67263
11.5818 -15.6698 -1.66332
11.5861 -15.7928 -1.67231
11.4721 -15.7479 -1.66306
11.1123 -15.3689 -1.61784
11.2609 -15.6916 -1.64846
11.3307 -15.9014 -1.66676
11.0599 -15.6391 -1.63445
11.1881 -15.9339 -1.66183
11.211 -16.0881 -1.67415
11.0956 -16.0373 -1.66457
11.1228 -16.2 -1.67776
11.0626 -16.2364 -1.67754
11.0658 -16.3594 -1.68644
10.8618 -16.1822 -1.66373
10.8426 -16.2718 -1.66916
10.527 -15.9216 -1.6285
10.5466 -16.0686 -1.64003
10.4694 -16.0762 -1.63702
10.5806 -16.3675 -1.66355
10.6263 -16.568 -1.68059
10.6601 -16.7449 -1.69508
10.2786 -16.2743 -1.64258
10.3495 -16.5099 -1.66318
10.3355 -16.6196 -1.67081
10.1768 -16.4883 -1.65359
10.0863 -16.4738 -1.64849
10.1393 -16.6866 -1.66666
10.0351 -16.6494 -1.65931
9.94494 -16.6269 -1.65342
9.98481 -16.8304 -1.67064
9.78532 -16.622 -1.64593
9.7637 -16.7224 -1.65268
9.80601 -16.926 -1.66981
9.65581 -16.8056 -1.65426
9.66411 -16.9524 -1.66563
9.51889 -16.8378 -1.65077
9.46186 -16.8699 -1.65064
9.28414 -16.693 -1.62968
9.44616 -17.1203 -1.66912
9.39131 -17.1664 -1.67047
9.28095 -17.1017 -1.66076
9.20155 -17.1015 -1.65757
9.07906 -17.0112 -1.64542
9.18839 -17.366 -1.67743
9.13908 -17.4145 -1.67905
9.02857 -17.3553 -1.67011
9.03129 -17.5043 -1.68166
8.84147 -17.2882 -1.65737
8.8084 -17.3677 -1.66212
8.79606 -17.4988 -1.672
8.59321 -17.2394 -1.64364
8.61861 -17.447 -1.66099
8.60463 -17.5671 -1.66976
8.46597 -17.4419 -1.6547
8.32232 -17.3033 -1.63841
8.42952 -17.6782 -1.67192
8.32289 -17.6164 -1.66313
8.27724 -17.6731 -1.66579
8.28857 -17.8634 -1.68139
8.11127 -17.6358 -1.65668
8.03175 -17.6284 -1.65328
8.07035 -17.8822 -1.67498
7.98194 -17.8454 -1.66874
7.87481 -17.7753 -1.65941
7.8705 -17.9275 -1.6713
7.72809 -17.7744 -1.65412
7.89775 -18.3436 -1.70578
7.66317 -17.9629 -1.66694
7.61319 -18.023 -1.67015
7.48146 -17.8882 -1.65488
7.32069 -17.694 -1.63385
7.46685 -18.237 -1.68284
7.26887 -17.9305 -1.65144
7.30173 -18.1923 -1.67374
7.15975 -18.0194 -1.65508
7.17157 -18.2333 -1.67284
7.11827 -18.2841 -1.67527
7.0195 -18.2177 -1.66673
7.04203 -18.4673 -1.68781
6.8855 -18.2475 -1.66497
6.76958 -18.1314 -1.6519
6.77052 -18.3287 -1.66812
6.71814 -18.3841 -1.67108
6.57125 -18.1788 -1.64982
6.53662 -18.2824 -1.65732
6.4056 -18.1154 -1.63972
6.54679 -18.7226 -1.69395
6.25524 -18.092 -1.63347
6.18159 -18.0836 -1.63069
6.25724 -18.502 -1.6673
6.16711 -18.4482 -1.66034
5.97674 -18.0895 -1.62532
6.05993 -18.5592 -1.66665
5.89191 -18.2618 -1.63738
5.87389 -18.4266 -1.65064
5.79548 -18.4034 -1.64665
5.70058 -18.3266 -1.63778
5.70765 -18.5788 -1.65907
5.58747 -18.4176 -1.64252
5.50243 -18.3538 -1.63488
5.42885 -18.3425 -1.63211
5.41635 -18.5393 -1.64834
5.34291 -18.5295 -1.64575
5.21721 -18.3354 -1.62641
5.17906 -18.4477 -1.63498
5.23333 -18.8959 -1.67405
5.08914 -18.6297 -1.64827
5.04834 -18.7213 -1.65492
4.9328 -18.5522 -1.63804
4.88673 -18.6426 -1.64468
4.8545 -18.7889 -1.65638
4.71329 -18.5105 -1.62973
4.72046 -18.8149 -1.65572
4.54581 -18.3923 -1.61617
4.54635 -18.6568 -1.63853
4.51139 -18.8005 -1.65005
4.43892 -18.7891 -1.64763
4.4009 -18.9249 -1.65845
4.25572 -18.5964 -1.62761
4.20443 -18.6735 -1.6332
4.22029 -19.0557 -1.66616
4.12964 -18.9614 -1.65641
3.92928 -18.3504 -1.60047
3.95092 -18.7511 -1.63504
3.86138 -18.6497 -1.62476
3.86982 -19.0263 -1.6572
3.74618 -18.7544 -1.63176
3.76258 -19.1858 -1.66906
3.64345 -18.9289 -1.64502
3.54909 -18.7927 -1.63178
3.5023 -18.9069 -1.64085
3.48813 -19.2052 -1.66631
3.36551 -18.9053 -1.63859
3.34372 -19.1702 -1.66108
3.33075 -19.4979 -1.68915
3.18598 -19.0495 -1.64835
3.14206 -19.1981 -1.66055
3.09812 -19.3526 -1.67328
2.97391 -18.999 -1.64102
2.92862 -19.1451 -1.65305
2.90531 -19.4449 -1.67866
2.76941 -18.9856 -1.63717
2.72741 -19.1627 -1.65198
2.64294 -19.0418 -1.64047
2.61247 -19.3134 -1.66364
2.54981 -19.366 -1.66739
2.46337 -19.2446 -1.65594
2.39514 -19.2231 -1.65327
2.27981 -18.8519 -1.61986
2.28591 -19.4491 -1.67176
2.19044 -19.2355 -1.65228
2.14072 -19.3795 -1.66427
2.09014 -19.5694 -1.68036
2.00182 -19.3603 -1.66131
1.86518 -18.7013 -1.6028
1.85557 -19.2628 -1.65157
1.80874 -19.4654 -1.66879
1.72048 -19.2754 -1.65159
1.67546 -19.5153 -1.67212
1.57889 -19.2095 -1.64481
1.51192 -19.191 -1.64269
1.42249 -18.8741 -1.61442
1.37076 -19.1137 -1.63504
1.33023 -19.474 -1.66621
1.26221 -19.4506 -1.66375
1.18752 -19.3915 -1.65822
1.11628 -19.3039 -1.65018
1.04311 -19.2561 -1.6457
0.991287 -19.5282 -1.6692
0.918177 -19.3921 -1.65698
0.849517 -19.4431 -1.66121
0.790637 -19.6251 -1.67688
0.707471 -19.1877 -1.63833
0.644364 -19.2577 -1.64424
0.56338 -18.9034 -1.61309
0.504475 -19.1144 -1.63137
0.442439 -19.2514 -1.64321
0.37078 -19.1832 -1.63715
0.309168 -19.4234 -1.65806
0.242398 -19.3785 -1.65403
0.171237 -19.3414 -1.65076
0.104179 -19.1407 -1.63313
0.0385706 -19.0154 -1.62214
-0.0264295 -19.135 -1.63258
-0.09498 -18.8558 -1.60822
-0.160268 -18.9649 -1.61779
-0.227996 -19.2273 -1.64079
-0.29584 -19.0689 -1.62705
-0.362023 -19.1296 -1.63244
-0.426736 -19.1063 -1.63052
-0.50527 -19.4412 -1.66
-0.570637 -19.4075 -1.65721
-0.636422 -19.3935 -1.65615
-0.691644 -19.0925 -1.62999
-0.769753 -19.3009 -1.64849
-0.830182 -19.1787 -1.63802
-0.900185 -19.2753 -1.64673
-0.967001 -19.2042 -1.64083
-1.03584 -19.2665 -1.64657
-1.08071 -18.9028 -1.61501
-1.15513 -18.9902 -1.62305
-1.21672 -18.9404 -1.61904
-1.32393 -19.4984 -1.66838
-1.34794 -18.9036 -1.6166
-1.43434 -19.1969 -1.64275
-1.48707 -18.975 -1.62376
-1.56395 -19.1228 -1.63717
-1.62956 -19.1273 -1.63804
-1.6963 -19.0915 -1.63543
-1.77647 -19.2543 -1.65025
-1.86962 -19.4916 -1.6717
-1.91446 -19.275 -1.65321
-1.97972 -19.2244 -1.64939
-2.02765 -19.0591 -1.63544
-2.06968 -18.8501 -1.61766
-2.19528 -19.3493 -1.66228
-2.23886 -19.1577 -1.64607
-2.30073 -19.0902 -1.64085
-2.37586 -19.1713 -1.64869
-2.48729 -19.4946 -1.67798
-2.5028 -18.9501 -1.63098
-2.57766 -19.0406 -1.63969
-2.6534 -19.0986 -1.64562
-2.7181 -19.0755 -1.64441
-2.72129 -18.6302 -1.60588
-2.87155 -19.19 -1.65626
-2.87747 -18.7801 -1.62087
-3.00436 -19.1596 -1.65539
-3.03935 -18.9483 -1.63761
-3.10002 -18.9022 -1.63446
-3.15911 -18.8479 -1.63063
-3.28239 -19.1706 -1.66026
-3.27331 -18.7213 -1.62138
-3.42485 -19.2165 -1.66637
-3.4298 -18.8594 -1.63569
-3.45693 -18.6356 -1.61686
-3.53404 -18.684 -1.62226
-3.58593 -18.5991 -1.61581
-3.71332 -18.9011 -1.64387
-3.75709 -18.7969 -1.6357
-3.80591 -18.6977 -1.62802
-3.87442 -18.6958 -1.62906
-3.93839 -18.6723 -1.62818
-4.02598 -18.7596 -1.63724
-4.0933 -18.7715 -1.63953
-4.07906 -18.3932 -1.60693
-4.21718 -18.7032 -1.63603
-4.32294 -18.861 -1.65154
-4.28636 -18.4217 -1.61339
-4.39923 -18.6081 -1.63151
-4.45667 -18.5575 -1.62836
-4.5204 -18.5339 -1.62765
-4.7081 -19.0109 -1.67209
-4.65687 -18.5412 -1.63117
-4.68809 -18.3894 -1.61895
-4.80204 -18.5617 -1.63602
-4.81203 -18.3326 -1.61683
-4.9479 -18.5997 -1.6425
-4.97386 -18.4339 -1.62907
-5.11059 -18.6775 -1.65275
-5.1522 -18.571 -1.64472
-5.20496 -18.5232 -1.64198
-5.18858 -18.2172 -1.61581
-5.38901 -18.6696 -1.65868
-5.31908 -18.1858 -1.61631
-5.4482 -18.4011 -1.63762
-5.51784 -18.397 -1.639
-5.5782 -18.3621 -1.63759
-5.57113 -18.108 -1.61614
-5.78729 -18.5917 -1.66221
-5.82712 -18.4895 -1.6547
-5.87855 -18.4251 -1.65068
-5.84248 -18.0914 -1.62189
-5.96704 -18.2562 -1.63896
-6.04603 -18.2932 -1.64425
-6.02586 -18.0185 -1.62088
-6.2011 -18.3274 -1.65137
-6.25411 -18.2715 -1.64821
-6.29951 -18.1947 -1.64314
-6.37656 -18.2228 -1.64775
-6.40945 -18.1119 -1.63954
-6.41063 -17.9148 -1.62332
-6.51627 -18.0101 -1.63428
-6.67062 -18.236 -1.65745
-6.58736 -17.8144 -1.62031
-6.59401 -17.6419 -1.60635
-6.79906 -18.0096 -1.64287
-6.92264 -18.1439 -1.65768
-6.94029 -18.0005 -1.64651
-6.99308 -17.9501 -1.64407
-7.061 -17.9385 -1.64528
-6.99912 -17.6008 -1.61581
-7.26577 -18.0865 -1.66392
-7.17738 -17.6881 -1.6287
-7.41906 -18.1016 -1.67019
-7.42653 -17.9153 -1.65517
-7.6784 -18.3479 -1.69863
-7.49242 -17.7236 -1.64192
-7.73829 -18.1344 -1.68346
-7.58779 -17.605 -1.63564
-7.65845 -17.6048 -1.63813
-7.80691 -17.7704 -1.65654
-7.93653 -17.9005 -1.67158
-7.98251 -17.8408 -1.66849
-8.07569 -17.8754 -1.67452
-8.13064 -17.8351 -1.67334
-8.08935 -17.5757 -1.65113
-8.09458 -17.4307 -1.63985
-8.13518 -17.3633 -1.63606
-8.14878 -17.2293 -1.62587
-8.38743 -17.5791 -1.66252
-8.37478 -17.3996 -1.64792
-8.37865 -17.2473 -1.63599
-8.554 -17.4566 -1.65921
-8.66118 -17.5237 -1.66866
-8.6402 -17.3228 -1.65201
-8.60448 -17.1045 -1.63358
-8.85119 -17.4464 -1.67005
-8.73119 -17.0559 -1.63475
-9.04893 -17.5288 -1.6843
-8.8586 -17.017 -1.63693
-8.86019 -16.8701 -1.6255
-9.1556 -17.2887 -1.66999
-9.06273 -16.9725 -1.64179
-9.25193 -17.1853 -1.66606
-9.14987 -16.8486 -1.6358
-9.1923 -16.7892 -1.63305
-9.3989 -17.028 -1.66011
-9.52573 -17.1104 -1.67168
-9.40773 -16.7632 -1.64017
-9.43079 -16.6702 -1.63411
-9.60132 -16.8368 -1.6542
-9.73497 -16.9279 -1.66682
-9.7799 -16.872 -1.66459
-9.81853 -16.8057 -1.66132
-9.77195 -16.5952 -1.64341
-9.77512 -16.4636 -1.63353
-9.94199 -16.6147 -1.65241
-9.97001 -16.5327 -1.64757
-10.1614 -16.7126 -1.66959
-10.1614 -16.5843 -1.66005
-10.1931 -16.5087 -1.65592
-10.1305 -16.2825 -1.63626
-10.3346 -16.4769 -1.66003
-10.2344 -16.1938 -1.63445
-10.5081 -16.5015 -1.67006
-10.5098 -16.3728 -1.66053
-10.6188 -16.4187 -1.66912
-10.5803 -16.2371 -1.65401
-10.6947 -16.2836 -1.66278
-10.8406 -16.3831 -1.67713
-10.84 -16.2614 -1.6683
-10.9145 -16.2524 -1.67132
-11.1508 -16.4751 -1.69892
-11.0083 -16.1456 -1.66812
-11.1568 -16.2371 -1.68195
-11.3517 -16.4004 -1.70346
-11.1647 -16.0135 -1.66639
-11.4378 -16.2795 -1.69905
-11.2411 -15.8843 -1.66094
-11.427 -16.0308 -1.68089
-11.5673 -16.1044 -1.69315
-11.2084 -15.4936 -1.63152
-11.7654 -16.1405 -1.70584
-11.7625 -16.0217 -1.69738
-11.6356 -15.7365 -1.67079
-11.6896 -15.6915 -1.67033
-12.0874 -16.1105 -1.72062
-11.9503 -15.8096 -1.69228
-12.0726 -15.8593 -1.70231
-11.9811 -15.6059 -1.67961
-12.2312 -15.8182 -1.7077
-12.4424 -15.977 -1.73003
-12.172 -15.5184 -1.68386
-12.2479 -15.5043 -1.68702
-12.6178 -15.8594 -1.73149
-12.2081 -15.2355 -1.66649
-12.4311 -15.4039 -1.69021
-12.7295 -15.6623 -1.72422
-12.4144 -15.1608 -1.6726
-13.1146 -15.9032 -1.76167
-12.8325 -15.4513 -1.71549
-12.6867 -15.1682 -1.68831
-12.8023 -15.1987 -1.69686
-13.0394 -15.3714 -1.72179
-12.9207 -15.1244 -1.69862
-12.9641 -15.0688 -1.6974
-13.0022 -15.007 -1.69548
-13.078 -14.9887 -1.69862
-13.2471 -15.0763 -1.71413
-13.2137 -14.933 -1.7028
-13.2525 -14.872 -1.70106
-13.2869 -14.8065 -1.6988
-13.2383 -14.6492 -1.68572
-13.4032 -14.7282 -1.70053
-13.5905 -14.8298 -1.71813
-13.43 -14.5524 -1.69076
-13.6489 -14.6865 -1.71236
-13.5434 -14.4715 -1.69231
-13.6772 -14.5126 -1.70294
-13.6125 -14.3434 -1.68829
-13.7506 -14.388 -1.69944
-13.9197 -14.4687 -1.715
-13.8301 -14.2755 -1.69739
-14.1944 -14.5494 -1.73677
-14.1543 -14.4074 -1.72543
-14.496 -14.6525 -1.76168
-14.1546 -14.2081 -1.71304
-14.296 -14.25 -1.72436
-14.1926 -14.0486 -1.70553
-14.2786 -14.0353 -1.71005
-14.6155 -14.2665 -1.74525
-14.2116 -13.7759 -1.68998
-14.3644 -13.827 -1.7027
-14.5047 -13.8649 -1.71385
-14.4836 -13.7484 -1.70547
-14.8476 -13.9957 -1.74346
-14.6898 -13.7505 -1.7187
-4.80776 -4.4704 -0.532826
-4.89062 -4.51584 -0.540841
-4.87835 -4.47324 -0.537528
-4.87618 -4.44019 -0.535435
-4.96255 -4.48735 -0.5438
-4.8906 -4.39159 -0.533515
-4.87001 -4.34277 -0.529331
-4.89707 -4.33641 -0.530726
-4.8447 -4.26022 -0.522883
-4.91641 -4.29317 -0.529505
-4.85452 -4.20956 -0.520618
-4.85244 -4.17841 -0.518701
-4.94258 -4.22626 -0.527418
-4.93292 -4.1885 -0.524631
-4.85294 -4.0918 -0.513829
-4.93888 -4.13504 -0.522023
-4.95775 -4.12173 -0.522549
-4.86894 -4.01962 -0.510877
-4.85974 -3.98381 -0.508268
-4.95233 -4.03107 -0.517162
-4.77855 -3.8625 -0.496077
-4.88367 -3.91947 -0.506369
-4.92362 -3.92365 -0.509338
-4.91682 -3.89056 -0.50708
-4.8753 -3.83051 -0.500989
-5.03375 -3.92554 -0.516948
-5.00464 -3.87524 -0.512253
-4.98878 -3.82059 -0.508313
-5.02259 -3.81904 -0.510585
-4.94995 -3.73676 -0.501178
-4.9963 -3.74476 -0.504844
-5.05556 -3.762 -0.509904
-5.02378 -3.71131 -0.505029
-5.11043 -3.74817 -0.513051
-5.03328 -3.66471 -0.503295
-5.06686 -3.66246 -0.505564
-5.18309 -3.71932 -0.516723
-5.12294 -3.64928 -0.508881
-5.14531 -3.63843 -0.509928
-5.15634 -3.61943 -0.509757
-5.18028 -3.60953 -0.510978
-5.21569 -3.60743 -0.51342
-5.11821 -3.51373 -0.501741
-5.16979 -3.52291 -0.505924
-5.22982 -3.53737 -0.51098
-5.24049 -3.5181 -0.510806
-5.21783 -3.47668 -0.507145
-5.28971 -3.49816 -0.51342
-5.23855 -3.43822 -0.506794
-5.20538 -3.39066 -0.502085
-5.25227 -3.3953 -0.505745
-5.40654 -3.46854 -0.52056
-5.23699 -3.33414 -0.501731
-5.35975 -3.38622 -0.513234
-5.26507 -3.3009 -0.502248
-5.351 -3.32894 -0.509916
-5.4303 -3.35222 -0.516886
-5.45039 -3.33855 -0.517754
-5.59303 -3.3993 -0.531174
-5.49058 -3.31092 -0.519491
-5.74818 -3.43917 -0.544588
-5.7139 -3.39171 -0.53988
-5.65859 -3.33241 -0.533076
-5.68909 -3.3238 -0.53499
-5.82466 -3.37596 -0.547536
-5.85881 -3.36862 -0.549798
-5.87397 -3.35021 -0.550144
-5.87172 -3.32194 -0.548746
-6.03782 -3.3883 -0.564254
-6.05831 -3.37216 -0.565122
-6.05607 -3.34338 -0.563725
-18.7402 -10.259 -1.82759
-18.7811 -10.1964 -1.82811
-18.4691 -9.94387 -1.79358
-18.9537 -10.1196 -1.83819
-18.9518 -10.0338 -1.83452
-19.0485 -10.0001 -1.84061
-18.7138 -9.74145 -1.80418
-19.2913 -9.95662 -1.85768
-19.2999 -9.87868 -1.85557
-19.3324 -9.81039 -1.8554
-19.8257 -9.97394 -1.90037
-19.7194 -9.83454 -1.88659
-19.559 -9.66949 -1.86759
-19.3296 -9.47246 -1.84196
-19.6921 -9.56518 -1.87403
-19.9049 -9.58287 -1.89147
-19.9057 -9.49801 -1.88833
-19.9603 -9.43885 -1.89042
-19.7964 -9.27713 -1.87143
-20.228 -9.39353 -1.90996
-20.3782 -9.37712 -1.9213
-20.5096 -9.34876 -1.93036
-20.1697 -9.10926 -1.89464
-20.4613 -9.15527 -1.91958
-20.4767 -9.07675 -1.91802
-20.2801 -8.90539 -1.89625
-20.8445 -9.06674 -1.94716
-20.4934 -8.82947 -1.91076
-20.3462 -8.68229 -1.89387
-20.3359 -8.59443 -1.89006
-20.9832 -8.78197 -1.94866
-20.8465 -8.6282 -1.93199
-20.7165 -8.48896 -1.91666
-20.9283 -8.49198 -1.93411
-21.0117 -8.43973 -1.93899
-20.9628 -8.33652 -1.93188
-21.3536 -8.40501 -1.96569
-21.67 -8.44375 -1.9929
-21.5399 -8.30567 -1.97774
-21.8772 -8.34952 -2.00687
-21.7332 -8.20695 -1.99048
-21.8546 -8.16699 -1.9994
-21.8796 -8.0886 -1.99886
-21.7994 -7.97177 -1.98857
-21.7218 -7.85871 -1.97901
-21.9595 -7.85743 -1.99834
-21.7797 -7.70861 -1.97937
-21.7786 -7.62197 -1.97657
-22.1757 -7.67535 -2.0111
-21.9952 -7.5263 -1.99173
-22.7928 -7.71174 -2.06321
-21.9413 -7.33752 -1.98198
-21.781 -7.20058 -1.9651
-21.7912 -7.11894 -1.96351
-22.3028 -7.20112 -2.0085
-22.7646 -7.26194 -2.04838
-22.6774 -7.14797 -2.0383
-22.3466 -6.95743 -2.00551
-22.4505 -6.90487 -2.01303
-21.9065 -6.65332 -1.9609
-21.9885 -6.59545 -1.9665
-22.1549 -6.56053 -1.97937
-22.2348 -6.50079 -1.98479
-22.3054 -6.43636 -1.98895
-22.0495 -6.28022 -1.96388
-22.5683 -6.34225 -2.00881
-22.3961 -6.21054 -1.99141
-22.4947 -6.15285 -1.99817
-22.6043 -6.09894 -2.00639
-22.1674 -5.89759 -1.96471
-22.3322 -5.85892 -1.97798
-22.6825 -5.86577 -2.00757
-22.3725 -5.70315 -1.97798
-22.603 -5.6775 -1.99676
-22.398 -5.54378 -1.97675
-22.4562 -5.47461 -1.98003
-22.5311 -5.41042 -1.98529
-22.4724 -5.31298 -1.97811
-22.3645 -5.20591 -1.96699
-22.6331 -5.18472 -1.98926
-22.8764 -5.15728 -2.00968
-23.0091 -5.10242 -2.01975
-22.6333 -4.93707 -1.98476
-22.9915 -4.9307 -2.01506
-23.1 -4.8705 -2.02346
-22.7072 -4.70455 -1.98666
-22.6823 -4.61764 -1.98321
-23.0071 -4.59977 -2.01053
-23.3337 -4.58112 -2.03846
-22.7882 -4.39117 -1.98824
-23.2554 -4.39771 -2.02871
-22.9377 -4.25454 -1.99888
-22.9679 -4.17794 -2.00049
-23.2923 -4.15264 -2.02783
-23.2613 -4.06406 -2.02404
-22.9769 -3.93153 -1.99735
-23.2046 -3.88778 -2.01657
-23.1336 -3.79267 -2.00888
-23.0403 -3.69551 -1.99969
-23.2656 -3.64816 -2.01831
-23.1993 -3.55542 -2.01157
-23.4599 -3.5113 -2.03334
-23.2156 -3.39256 -2.01091
-23.1839 -3.30516 -2.00688
-23.0177 -3.19948 -1.99101
-23.4314 -3.17407 -2.02679
-23.2423 -3.05502 -2.00985
-23.1756 -2.96456 -2.00338
-23.0179 -2.86273 -1.98847
-23.4233 -2.83022 -2.02325
-23.0353 -2.70169 -1.98811
-23.0624 -2.62332 -1.98959
-23.6397 -2.60615 -2.03996
-23.2267 -2.47849 -2.00273
-23.2076 -2.39455 -2.0002
-23.1583 -2.30784 -1.99505
-23.2911 -2.23948 -2.00637
-23.6897 -2.19446 -2.04063
-23.3855 -2.08401 -2.01316
-23.2458 -1.9898 -2.00017
-23.4075 -1.92146 -2.01367
-23.6028 -1.855 -2.03057
-23.1879 -1.7409 -1.99352
-23.0309 -1.64839 -1.97913
-23.124 -1.57396 -1.98671
-23.0259 -1.48661 -1.97755
-23.5201 -1.43655 -2.02078
-23.6066 -1.35922 -2.02783
-24.031 -1.29961 -2.06453
-23.5539 -1.19135 -2.02225
-23.4285 -1.1033 -2.01125
-23.5178 -1.02541 -2.01866
-23.2186 -0.931198 -1.99206
-23.7275 -0.868819 -2.03626
-23.4795 -0.777773 -2.0142
-23.4223 -0.694218 -2.0093
-23.0103 -0.601677 -1.97294
-23.7094 -0.537334 -2.03388
-23.5956 -0.45241 -2.02368
-23.3361 -0.36609 -2.00074
-23.8093 -0.290534 -2.0424
-24.1509 -0.210527 -2.07213
-23.8526 -0.124789 -2.04588
-23.7115 -0.0414205 -2.03341
-23.7633 0.0412931 -2.03785
-23.6832 0.123786 -2.03122
-23.4098 0.203924 -2.00724
-23.9887 0.292559 -2.05788
-24.2126 0.379652 -2.07749
-23.5836 0.452121 -2.02291
-24.1635 0.547447 -2.07373
-23.8687 0.623994 -2.04801
-23.508 0.696519 -2.01654
-24.0291 0.795679 -2.0623
-24.056 0.880835 -2.06526
-23.5749 0.945391 -2.02332
-23.9716 1.0449 -2.05827
-23.3867 1.10098 -2.00727
-23.8026 1.20365 -2.04396
-24.1901 1.30818 -2.07865
-23.9866 1.38095 -2.06113
-24.1287 1.47344 -2.07393
-24.1434 1.55866 -2.07558
-23.9886 1.63301 -2.06285
-24.1318 1.72725 -2.07583
-24.0144 1.80288 -2.06598
-23.7895 1.86922 -2.04671
-23.5962 1.93666 -2.03023
-24.0378 2.05786 -2.06997
-23.8936 2.12928 -2.05784
-23.5568 2.18181 -2.02881
-23.9794 2.3052 -2.06655
-24.0207 2.39358 -2.07082
-23.8893 2.46507 -2.06035
-23.833 2.54318 -2.05607
-23.7665 2.61967 -2.05092
-24.2087 2.7538 -2.09058
-24.3116 2.85199 -2.10086
-24.2936 2.93559 -2.10007
-23.9886 2.9834 -2.074
-23.8773 3.05393 -2.06501
-24.3315 3.20778 -2.10609
-23.7949 3.2216 -2.05973
-24.1171 3.35078 -2.08921
-23.6398 3.36866 -2.04808
-23.9158 3.49298 -2.07355
-24.1774 3.61728 -2.0978
-24.0622 3.68597 -2.08875
-24.0571 3.77104 -2.08947
-23.8904 3.83035 -2.07589
-23.8218 3.90462 -2.07104
-23.3835 3.91669 -2.0334
-23.6015 4.03783 -2.054
-23.868 4.16916 -2.07896
-23.9142 4.26324 -2.08439
-23.8187 4.33201 -2.07727
-24.1267 4.475 -2.10607
-23.6763 4.477 -2.06739
-23.88 4.60062 -2.08652
-23.7464 4.66094 -2.07609
-23.2865 4.65515 -2.03655
-24.0335 4.89169 -2.10475
-23.6905 4.90803 -2.07567
-23.837 5.02518 -2.09035
-23.4687 5.0332 -2.059
-23.5873 5.14476 -2.07124
-23.6567 5.24646 -2.07913
-23.5624 5.31194 -2.07236
-23.5632 5.39856 -2.07414
-23.8527 5.55266 -2.10191
-23.4574 5.54557 -2.06769
-23.8758 5.73253 -2.10713
-23.424 5.71055 -2.06829
-23.7211 5.87081 -2.09693
-23.1168 5.80705 -2.04431
-23.3706 5.95757 -2.06911
-23.8589 6.1708 -2.11518
-23.6888 6.2152 -2.10179
-23.2799 6.19488 -2.06679
-23.4583 6.3301 -2.08496
-24.049 6.57968 -2.14063
-23.1834 6.42834 -2.0637
-23.8322 6.6979 -2.12476
-23.8987 6.80678 -2.13299
-23.3427 6.73655 -2.08456
-23.3248 6.81972 -2.08513
-23.6828 7.01433 -2.12003
-23.3223 6.99614 -2.08939
-23.4635 7.12802 -2.1046
-23.6995 7.29015 -2.12852
-23.2838 7.25144 -2.09281
-23.0057 7.25295 -2.06966
-23.3528 7.45019 -2.10345
-22.9664 7.4154 -2.07036
-22.9441 7.49681 -2.07074
-23.264 7.69136 -2.10269
-23.339 7.80665 -2.11214
-23.4342 7.92964 -2.1235
-23.1255 7.91524 -2.09755
-23.3764 8.09239 -2.12339
-23.1072 8.08974 -2.1011
-23.3118 8.25281 -2.12275
-23.2077 8.30729 -2.11581
-23.1449 8.3761 -2.1127
-22.9471 8.39522 -2.09703
-23.208 8.58038 -2.12367
-22.9652 8.58178 -2.10382
-23.0282 8.69711 -2.11256
-22.9885 8.77392 -2.11171
-23.2531 8.96814 -2.13946
-23.1958 9.03904 -2.13704
-22.8508 8.99657 -2.10759
-22.9063 9.11087 -2.1158
-22.926 9.21155 -2.1207
-23.0119 9.33941 -2.13187
-22.9275 9.39851 -2.127
-23.2204 9.62341 -2.15825
-22.9153 9.58945 -2.13226
-22.4682 9.49605 -2.09325
-22.9009 9.77191 -2.13736
-22.9943 9.90806 -2.14979
-22.6147 9.83704 -2.11667
-22.8716 10.0453 -2.14479
-22.6019 10.0199 -2.12213
-22.389 10.0179 -2.10488
-22.6875 10.2482 -2.1372
-22.3439 10.1858 -2.1074
-22.0342 10.1392 -2.08131
-22.3318 10.3694 -2.11323
-22.4294 10.5089 -2.12598
-22.6063 10.6898 -2.14697
-22.2314 10.6063 -2.11405
-22.0624 10.6222 -2.10156
-22.334 10.8478 -2.13141
-22.0478 10.8029 -2.10702
-21.936 10.845 -2.10012
-21.4457 10.6948 -2.0557
-22.0085 11.0702 -2.11432
-21.6954 11.0097 -2.08772
-21.9429 11.2305 -2.11565
-21.7447 11.2238 -2.09982
-21.8867 11.3959 -2.11804
-21.5385 11.3092 -2.08739
-21.8696 11.5826 -2.12443
-21.9579 11.7263 -2.13703
-21.2438 11.4393 -2.06995
-21.553 11.7051 -2.10507
-21.7118 11.8883 -2.12482
-21.6515 11.9525 -2.12277
-21.2832 11.8484 -2.09042
-21.6454 12.1479 -2.13075
-21.5462 12.19 -2.12487
-21.5008 12.2658 -2.12494
-21.5948 12.4183 -2.13859
-21.0124 12.1799 -2.08389
-21.0479 12.301 -2.09216
-21.0175 12.3805 -2.09326
-21.2745 12.6308 -2.12365
-20.8241 12.4642 -2.08257
-21.165 12.7673 -2.12168
-21.0442 12.7936 -2.11371
-20.8048 12.7499 -2.09408
-21.0744 13.0152 -2.12621
-20.8924 13.0024 -2.11196
-20.8305 13.0674 -2.11063
-20.7451 13.1134 -2.10632
-21.0645 13.417 -2.14403
-21.0483 13.5127 -2.14758
-20.5517 13.2938 -2.10055
-20.9164 13.6321 -2.14332
-20.478 13.4507 -2.10275
-20.7639 13.7409 -2.1375
-20.2474 13.4994 -2.08802
-20.849 14.0084 -2.15677
-20.6027 13.9459 -2.13572
-20.3703 13.8908 -2.11606
-20.9116 14.3698 -2.17905
-20.2774 14.0365 -2.11667
-20.3922 14.2241 -2.1345
-20.4345 14.3581 -2.14412
-19.6583 13.9134 -2.06605
-20.2491 14.4406 -2.13513
-20.2092 14.5169 -2.13604
-20.2557 14.6603 -2.14688
-19.7417 14.3915 -2.09652
-20.4309 15.0016 -2.17658
-20.0088 14.8018 -2.13668
-19.9404 14.8571 -2.13461
-20.1311 15.1112 -2.16148
-19.8044 14.9721 -2.13117
-19.9615 15.2032 -2.15454
-19.6435 15.0778 -2.12514
-19.7843 15.2936 -2.14627
-19.6005 15.2638 -2.13216
-19.5451 15.3283 -2.13168
-19.5636 15.4562 -2.14007
-19.7991 15.7525 -2.17219
-19.6814 15.7692 -2.16491
-19.3828 15.6444 -2.13792
-19.1219 15.5424 -2.11444
-19.2896 15.7938 -2.13993
-18.8495 15.5418 -2.09605
-18.9647 15.7463 -2.11512
-18.8271 15.7465 -2.10609
-18.7836 15.82 -2.1072
-18.8341 15.9733 -2.11912
-18.7387 16.0085 -2.11498
-18.4118 15.8389 -2.0835
-18.2097 15.7743 -2.06632
-18.1858 15.8685 -2.07037
-17.9141 15.7402 -2.045
-18.1585 16.0657 -2.07977
-18.1671 16.185 -2.08718
-17.9041 16.0666 -2.06334
-17.8088 16.0921 -2.05854
-17.836 16.2283 -2.06822
-17.8376 16.3476 -2.07559
-17.812 16.4373 -2.07916
-17.5277 16.2869 -2.05189
-17.4148 16.294 -2.04501
-17.5053 16.4974 -2.06318
-17.3155 16.4314 -2.04707
-16.9534 16.1991 -2.01003
-17.1734 16.5282 -2.04407
-17.1221 16.5927 -2.04469
-17.1163 16.7016 -2.05089
-16.8556 16.5607 -2.02589
-17.1794 17.0013 -2.07334
-16.8582 16.7987 -2.04084
-16.7469 16.803 -2.03414
-16.654 16.8251 -2.02972
-16.438 16.7274 -2.01057
-16.5488 16.9564 -2.03159
-16.5001 17.0232 -2.03274
-16.6059 17.2506 -2.05342
-16.147 16.8957 -2.00341
-16.2781 17.1506 -2.02739
-16.5033 17.508 -2.06358
-16.1448 17.2461 -2.02534
-16.0294 17.2474 -2.01873
-16.0999 17.4429 -2.0354
-15.8419 17.2822 -2.0097
-15.6962 17.248 -1.99908
-15.7091 17.3816 -2.00842
-15.8276 17.6341 -2.0317
-15.5854 17.4845 -2.00775
-15.2699 17.2557 -1.97463
-15.5881 17.7376 -2.02459
-15.2586 17.4832 -1.98878
-15.1289 17.4613 -1.98006
-14.8493 17.2578 -1.95052
-15.0697 17.6358 -1.9881
-14.8783 17.5396 -1.971
-14.8759 17.659 -1.97877
-14.9765 17.9024 -2.00066
-14.689 17.688 -1.9703
-14.5081 17.5921 -1.95366
-14.7431 18.0023 -1.99437
-14.746 18.1388 -2.00393
-14.5125 17.9766 -1.97996
-14.2293 17.7493 -1.94885
-14.5114 18.2354 -1.99763
-14.2342 18.0127 -1.96721
-14.0021 17.8506 -1.94363
-14.1223 18.1309 -1.96934
-14.0739 18.1962 -1.97116
-13.7097 17.8757 -1.9296
-13.8926 18.2475 -1.96522
-13.9828 18.4942 -1.98704
-13.6528 18.1916 -1.94859
-13.5762 18.2239 -1.94691
-13.6347 18.4312 -1.96438
-13.6446 18.5823 -1.97561
-13.1747 18.0695 -1.91499
-13.5952 18.786 -1.98741
-13.2004 18.378 -1.93833
-13.142 18.4272 -1.93873
-12.9496 18.2951 -1.91963
-13.0159 18.5286 -1.93977
-12.9319 18.5413 -1.93634
-12.7965 18.4874 -1.92579
-12.5535 18.2678 -1.89779
-12.5409 18.3899 -1.90606
-12.5526 18.5409 -1.91746
-12.3129 18.3277 -1.89036
-12.5616 18.8349 -1.93923
-12.3633 18.682 -1.91858
-12.2952 18.7245 -1.9185
-12.0361 18.4655 -1.88702
-12.0228 18.5905 -1.89565
-11.6855 18.2035 -1.85111
-12.1554 19.0855 -1.93835
-11.8034 18.6718 -1.8912
-11.6061 18.5064 -1.86984
-11.7341 18.8517 -1.9013
-11.5659 18.7309 -1.88466
-11.6576 19.023 -1.91054
-11.6845 19.2214 -1.92667
-11.3662 18.8411 -1.8837
-11.3445 18.9587 -1.89163
-11.3048 19.0381 -1.89573
-11.2201 19.0511 -1.89303
-11.1667 19.1079 -1.89487
-10.9571 18.9048 -1.87037
-10.9726 19.0799 -1.88424
-10.8042 18.9444 -1.86672
-10.905 19.2722 -1.89593
-10.5579 18.8068 -1.84547
-10.5988 19.0396 -1.86507
-10.8127 19.5794 -1.91537
-10.5461 19.2599 -1.87972
-10.54 19.4039 -1.89045
-10.2133 18.9645 -1.84311
-10.2872 19.2572 -1.86867
-10.2431 19.3416 -1.87345
-10.263 19.5383 -1.88941
-10.0345 19.2711 -1.8595
-9.93658 19.2411 -1.85315
-9.99723 19.5302 -1.87814
-9.86032 19.4345 -1.86531
-9.83417 19.5459 -1.87291
-9.69294 19.4384 -1.85903
-9.53118 19.2762 -1.83996
-9.63468 19.6628 -1.87436
-9.53445 19.6252 -1.86749
-9.51416 19.7633 -1.87766
-9.31398 19.5146 -1.85039
-9.27546 19.6145 -1.8569
-9.05996 19.3262 -1.82597
-8.99249 19.3621 -1.82637
-9.24277 20.0892 -1.89336
-8.96135 19.6505 -1.84814
-9.12723 20.2053 -1.89839
-8.89267 19.8629 -1.86258
-8.79676 19.8381 -1.85723
-8.91812 20.3071 -1.89911
-8.62138 19.8106 -1.84883
-8.5113 19.7497 -1.84015
-8.45343 19.8092 -1.84297
-8.33077 19.7032 -1.83018
-8.38144 20.0213 -1.85758
-8.1834 19.7605 -1.82978
-8.16347 19.9067 -1.84093
-8.23013 20.269 -1.87247
-8.17023 20.3233 -1.87491
-7.98919 20.0739 -1.84876
-7.87993 20.0014 -1.83934
-7.92339 20.3182 -1.86653
-7.82464 20.2732 -1.85973
-7.62467 19.9616 -1.82801
-7.84549 20.7558 -1.89982
-7.63979 20.4266 -1.86654
-7.62101 20.5952 -1.87979
-7.4375 20.3167 -1.85137
-7.43168 20.5224 -1.86811
-7.24437 20.2256 -1.83814
-7.24622 20.4555 -1.85715
-7.12055 20.3266 -1.84286
-6.98554 20.1669 -1.82578
-6.95034 20.2949 -1.83537
-6.85751 20.2549 -1.82945
-6.95552 20.7833 -1.87601
-6.72543 20.3328 -1.83226
-6.62176 20.2411 -1.82174
-6.48207 20.0518 -1.80222
-6.40866 20.065 -1.80136
-6.32796 20.055 -1.79841
-6.32338 20.2883 -1.81776
-6.08794 19.7772 -1.76897
-5.94079 19.543 -1.74562
-5.92996 19.7565 -1.76323
-5.86285 19.7848 -1.76393
-5.75425 19.6548 -1.75029
-5.80353 20.0845 -1.78761
-5.63078 19.7465 -1.75502
-5.63569 20.0309 -1.77908
-5.47524 19.7261 -1.74963
-5.4022 19.7318 -1.74842
-5.28607 19.5775 -1.73274
-5.1602 19.3823 -1.71339
-5.25354 19.9965 -1.76739
-5.05893 19.5346 -1.724
-5.01873 19.6642 -1.73412
-4.98311 19.815 -1.74615
-4.78696 19.3219 -1.70014
-4.75351 19.4799 -1.71287
-4.60639 19.169 -1.68342
-4.64448 19.6106 -1.72174
-4.51723 19.3764 -1.69926
-4.40959 19.2194 -1.68375
-4.44245 19.6798 -1.72367
-4.28481 19.2965 -1.68794
-4.20568 19.2589 -1.68324
-4.16306 19.3904 -1.6937
-4.0544 19.2119 -1.67645
-3.98173 19.2006 -1.67418
-3.99658 19.5942 -1.70816
-3.85554 19.2466 -1.67591
-3.77852 19.2111 -1.67156
-3.64294 18.8701 -1.64001
-3.69693 19.517 -1.69649
-3.53089 19.0029 -1.6496
-3.42133 18.7779 -1.62851
-3.37383 18.8917 -1.63758
-3.31472 18.9426 -1.64107
-3.23929 18.8991 -1.63619
-3.14241 18.7255 -1.61981
-3.05674 18.6125 -1.60882
-3.00396 18.6977 -1.61545
-2.84187 18.09 -1.56071
-2.73729 17.828 -1.53666
-2.68132 17.8768 -1.54015
-2.65613 18.1383 -1.56246
-2.55287 17.8653 -1.53754
-2.4739 17.7517 -1.52673
-2.39048 17.5983 -1.51244
-2.35632 17.9265 -1.5404
-2.2779 17.8261 -1.53081
-2.20502 17.7289 -1.52158
-2.1617 17.9069 -1.53656
-2.10785 17.9675 -1.54127
-2.02119 17.7829 -1.52436
-1.95409 17.7243 -1.51862
-1.84847 17.343 -1.48444
-1.81262 17.5671 -1.50362
-1.7647 17.7302 -1.51738
-1.69331 17.6171 -1.50694
-1.62468 17.5715 -1.50239
-1.56083 17.5273 -1.49804
-1.48208 17.3062 -1.47818
-1.45598 17.7583 -1.51738
-1.38951 17.6837 -1.51042
-1.31325 17.5277 -1.49629
-1.24268 17.377 -1.4827
-1.18502 17.401 -1.48445
-1.10464 17.1408 -1.46125
-1.05136 17.226 -1.46841
-0.999356 17.3409 -1.47818
-0.920254 17.05 -1.45237
-0.866539 17.1386 -1.45987
-0.80784 17.1315 -1.45901
-0.749349 17.2279 -1.46717
-0.690604 17.2263 -1.46684
-0.623879 17.0096 -1.44768
-0.557768 16.8903 -1.43702
-0.497094 16.7846 -1.42762
-0.445801 17.0132 -1.4475
-0.39438 17.4888 -1.48896
-0.325223 16.99 -1.44522
-0.267134 16.9831 -1.44454
-0.201483 16.6851 -1.41836
-0.149024 17.1918 -1.46265
-0.0885232 16.8335 -1.43129
-0.030896 16.754 -1.42433
0.0302636 16.7281 -1.42203
0.0869322 16.6562 -1.41576
0.147198 17.0662 -1.45169
0.205497 16.7349 -1.42271
0.262621 16.7361 -1.42291
0.3167 16.5777 -1.40915
0.378984 16.6561 -1.41608
0.434836 16.6169 -1.41279
0.491806 16.6292 -1.41403
0.538219 16.3188 -1.38703
0.605821 16.5338 -1.40598
0.689739 17.2204 -1.46632
0.734844 16.9074 -1.43915
0.787082 16.7056 -1.42167
0.849845 16.8202 -1.43198
0.90995 16.871 -1.43671
0.985899 17.1181 -1.45862
1.05252 17.2539 -1.47085
1.0989 17.0613 -1.45432
1.15936 17.0334 -1.45217
1.20837 16.9061 -1.4414
1.29468 17.2873 -1.47524
1.33692 17.0223 -1.45236
1.38186 16.8628 -1.43879
1.44867 16.9231 -1.4445
1.5355 17.2495 -1.47364
1.55441 16.8177 -1.4362
1.64605 17.1312 -1.46421
1.69777 17.0641 -1.45885
1.82435 17.6861 -1.51405
1.8584 17.4401 -1.493
1.93516 17.558 -1.50393
2.02931 17.8582 -1.531
2.08742 17.7973 -1.52624
2.16356 17.9247 -1.53814
2.22242 17.8713 -1.53408
2.31344 18.1068 -1.55558
2.39005 18.1029 -1.55605
2.48553 18.3333 -1.57714
2.56227 18.4173 -1.58533
2.59992 18.2209 -1.56877
2.70905 18.5232 -1.5963
2.72025 18.155 -1.56457
2.84229 18.5577 -1.60111
2.88394 18.398 -1.58785
2.93832 18.3249 -1.58227
2.99807 18.2869 -1.57981
3.09051 18.4453 -1.59479
3.10025 18.1123 -1.56619
3.27727 18.7509 -1.62387
3.27889 18.3784 -1.59177
3.12443 17.1855 -1.48677
3.12469 16.8492 -1.45782
3.27611 17.3256 -1.5012
3.31225 17.1848 -1.48967
3.38667 17.2434 -1.49593
3.49583 17.4736 -1.51752
3.52628 17.3293 -1.50577
3.67267 17.7284 -1.54252
3.60749 17.109 -1.48829
3.59939 16.7767 -1.45967
3.65867 16.7639 -1.45964
3.76 16.9599 -1.4784
3.8764 17.1972 -1.50086
3.88822 16.9698 -1.48165
3.97937 17.0898 -1.49364
4.0963 17.3325 -1.51676
4.12408 17.1784 -1.50418
4.15562 17.0437 -1.49334
4.14178 16.7291 -1.46629
4.26208 16.9579 -1.48821
4.38353 17.2005 -1.5115
4.38996 16.9746 -1.49247
4.45211 16.9667 -1.49313
4.53933 17.0528 -1.50233
4.60861 17.0858 -1.5068
4.61546 16.8734 -1.48899
4.57083 16.4806 -1.45478
4.7202 16.7885 -1.4842
4.78448 16.8034 -1.48711
4.86492 16.8591 -1.4937
4.88254 16.6984 -1.48059
4.92461 16.6237 -1.47532
4.96005 16.5425 -1.46951
5.04051 16.5972 -1.4761
5.01664 16.3108 -1.45148
5.17016 16.6011 -1.47968
5.11842 16.2457 -1.44879
5.28843 16.5806 -1.48117
5.35057 16.5732 -1.48218
5.22585 15.9936 -1.43055
5.47254 16.5501 -1.48351
5.4841 16.4035 -1.47179
5.53169 16.3538 -1.46897
5.71448 16.6999 -1.50275
5.6266 16.256 -1.4635
5.72268 16.3471 -1.47375
5.72719 16.1891 -1.461
5.79626 16.2026 -1.46411
5.76499 15.9386 -1.44142
5.81214 15.8939 -1.43913
5.8893 15.9313 -1.44451
6.07224 16.2501 -1.47621
6.06724 16.0647 -1.46085
6.08152 15.9335 -1.45055
6.10435 15.8373 -1.44357
6.25385 16.0571 -1.46621
6.2983 16.0054 -1.46341
6.25327 15.7297 -1.43952
6.326 15.7521 -1.44369
6.37725 15.7207 -1.44281
6.50835 15.8845 -1.46041
6.51958 15.7269 -1.44805
6.64915 15.878 -1.46451
6.66713 15.771 -1.45659
6.66202 15.6022 -1.44272
6.77236 15.7131 -1.45552
6.6968 15.3941 -1.42737
6.69705 15.244 -1.41523
7.02224 15.8387 -1.47441
6.86059 15.3241 -1.4274
7.00762 15.5114 -1.4477
6.98259 15.317 -1.43139
7.07633 15.375 -1.43929
7.13949 15.3743 -1.44163
7.16374 15.2817 -1.43505
7.21658 15.259 -1.4353
7.23417 15.1624 -1.4284
7.32107 15.2025 -1.43471
7.30326 15.0341 -1.42084
7.45348 15.2113 -1.44061
7.37267 14.9092 -1.41363
7.56393 15.1656 -1.44123
7.51088 14.9315 -1.42091
7.6562 15.0836 -1.43837
7.70858 15.0591 -1.4386
7.51511 14.5582 -1.39196
7.67378 14.7341 -1.41185
7.66472 14.5948 -1.40076
7.82644 14.7798 -1.42174
7.85357 14.709 -1.41745
7.90031 14.6682 -1.41607
7.93147 14.606 -1.41265
8.0933 14.7833 -1.4331
8.13065 14.7241 -1.42998
8.1238 14.5935 -1.41976
8.06747 14.3762 -1.40082
8.20589 14.5063 -1.41675
8.35338 14.6425 -1.43331
8.56331 14.8919 -1.46144
8.46042 14.597 -1.43466
8.3515 14.2962 -1.40718
8.50049 14.4305 -1.42375
8.56922 14.4339 -1.42712
8.54902 14.2882 -1.41533
8.52674 14.1342 -1.40261
8.5865 14.1237 -1.4046
8.72533 14.242 -1.41983
8.8065 14.2646 -1.4253
8.77187 14.0938 -1.41083
8.93752 14.2511 -1.43025
8.92669 14.1261 -1.42056
9.00462 14.1356 -1.42475
8.99806 14.0192 -1.41593
9.16715 14.1757 -1.43553
9.12961 14.0124 -1.42183
9.17155 13.9659 -1.42027
9.20814 13.9179 -1.4186
9.23025 13.8482 -1.41467
9.33812 13.9007 -1.42357
9.34083 13.8027 -1.41668
9.41141 13.8053 -1.42043
9.53918 13.8845 -1.43229
9.48441 13.7044 -1.41669
9.61883 13.7978 -1.4302
9.84954 14.0206 -1.45758
9.65782 13.6487 -1.42142
9.79367 13.7354 -1.43434
9.80545 13.6535 -1.42921
9.98393 13.8024 -1.44901
10.0581 13.8002 -1.45251
9.74179 13.2713 -1.39894
10.0632 13.6061 -1.43905
10.0521 13.4952 -1.4308
10.0237 13.3621 -1.42011
10.086 13.3452 -1.42206
10.2327 13.444 -1.43683
10.308 13.4215 -1.4387
10.3361 13.3622 -1.43612
10.3148 13.2399 -1.42657
10.4836 13.3609 -1.44403
10.3347 13.0775 -1.41652
10.4581 13.1399 -1.42752
10.6331 13.2602 -1.44505
10.4288 12.9132 -1.41022
10.7449 13.2109 -1.44787
10.6872 13.0471 -1.4336
10.6095 12.8609 -1.41671
10.7929 12.991 -1.43572
10.7011 12.7899 -1.41709
10.8957 12.931 -1.43748
10.8697 12.8095 -1.4279
11.0655 12.9489 -1.4483
10.969 12.7457 -1.42931
11.3211 13.0628 -1.47044
11.0194 12.6255 -1.42426
10.9962 12.5108 -1.41537
11.2549 12.7156 -1.44378
11.3442 12.727 -1.4497
11.439 12.7437 -1.45632
11.2255 12.4185 -1.42268
11.3291 12.4456 -1.43052
11.476 12.5192 -1.44393
11.4506 12.4044 -1.43503
11.6254 12.506 -1.45193
11.7248 12.5251 -1.45906
11.4376 12.1332 -1.41688
11.5512 12.1684 -1.42594
11.5454 12.0777 -1.41983
11.8458 12.3058 -1.4524
11.8582 12.2329 -1.44855
11.8172 12.1059 -1.43808
11.738 11.941 -1.42291
11.914 12.036 -1.43963
11.9249 11.9633 -1.43578
12.0239 11.9827 -1.44339
11.9212 11.7977 -1.4256
12.0731 11.865 -1.43918
12.0745 11.7839 -1.43429
12.4375 12.0536 -1.47349
12.2196 11.7601 -1.44193
12.0415 11.5082 -1.41543
12.3895 11.7583 -1.45254
12.4362 11.7205 -1.45322
12.4507 11.6525 -1.45008
12.5439 11.6579 -1.45634
12.5273 11.5614 -1.44954
12.8642 11.7895 -1.48473
12.7652 11.6172 -1.46817
12.745 11.5179 -1.46102
13.0817 11.7396 -1.49586
12.8979 11.4938 -1.46955
12.5827 11.1346 -1.42807
12.9252 11.3576 -1.46344
12.9451 11.2955 -1.46118
12.9949 11.2595 -1.4624
13.0371 11.2168 -1.46275
13.1653 11.2478 -1.47304
13.0813 11.0975 -1.45893
13.4292 11.3125 -1.49431
13.2804 11.1085 -1.47289
13.4599 11.1794 -1.48893
13.3511 11.0109 -1.47222
13.5588 11.1032 -1.49141
13.4875 10.9668 -1.47906
13.5845 10.9675 -1.4857
13.4606 10.7907 -1.4676
13.7335 10.9312 -1.49395
13.7948 10.8988 -1.49607
13.8732 10.8828 -1.50064
13.76 10.7172 -1.48394
14.0082 10.8327 -1.50733
13.9158 10.6715 -1.49331
14.0036 10.6618 -1.49892
14.166 10.7081 -1.51273
13.9355 10.4578 -1.48345
13.975 10.4117 -1.48383
14.1425 10.4603 -1.49815
14.3264 10.5196 -1.51421
14.2712 10.4028 -1.50429
14.2168 10.2845 -1.49401
14.5032 10.4152 -1.52104
14.7292 10.5001 -1.54146
14.4192 10.2036 -1.50433
14.678 10.3103 -1.52822
14.7089 10.2557 -1.5277
14.5758 10.0876 -1.50975
14.5452 9.9917 -1.50278
14.8499 10.1251 -1.53138
14.4017 9.74605 -1.48029
14.8572 9.97918 -1.52475
14.8737 9.91519 -1.52283
14.8118 9.79955 -1.51272
15.0174 9.86054 -1.53067
14.9432 9.73741 -1.51933
14.8365 9.59439 -1.50468
15.0324 9.64702 -1.52158
15.0475 9.58278 -1.51966
15.2746 9.65272 -1.5397
14.9114 9.35059 -1.49872
15.086 9.38698 -1.51335
15.1954 9.38436 -1.52174
15.4847 9.48855 -1.54806
15.5398 9.44792 -1.55031
15.559 9.3854 -1.5489
15.4087 9.22161 -1.53023
15.8091 9.38653 -1.56771
16.034 9.4446 -1.58723
15.5405 9.08097 -1.53386
15.7444 9.12663 -1.55128
15.4273 8.87104 -1.51604
15.9081 9.07384 -1.56136
15.6501 8.85447 -1.53223
15.7798 8.85542 -1.54215
15.9987 8.90493 -1.56097
15.7837 8.71333 -1.53637
16.0744 8.80076 -1.56234
16.1243 8.75514 -1.56424
16.06 8.64784 -1.55481
16.3466 8.72877 -1.58026
16.3752 8.67079 -1.58007
16.1848 8.4979 -1.55826
16.3592 8.51683 -1.57255
16.1339 8.32822 -1.54743
16.42 8.40351 -1.57271
16.6144 8.43001 -1.58891
16.4711 8.28526 -1.57199
16.2002 8.07847 -1.5427
16.8517 8.33002 -1.60354
16.5531 8.11085 -1.57163
16.6405 8.08184 -1.57738
16.7815 8.07826 -1.58837
16.5704 7.90568 -1.56518
16.8285 7.95685 -1.5875
16.8975 7.91767 -1.59151
16.7442 7.77491 -1.57408
17.0319 7.83641 -1.5992
16.9212 7.7143 -1.58596
17.1731 7.75698 -1.60759
17.1582 7.67846 -1.60359
17.0645 7.56542 -1.5921
17.0981 7.50917 -1.59281
17.029 7.40833 -1.58377
17.2779 7.44515 -1.60506
17.388 7.42098 -1.61311
17.065 7.21317 -1.58001
17.1654 7.18529 -1.58718
17.6103 7.28826 -1.62616
17.3576 7.11207 -1.59964
17.5517 7.12141 -1.61591
17.5416 7.04541 -1.61241
17.6879 7.03371 -1.62415
17.6644 6.95241 -1.61942
17.505 6.81849 -1.60197
18.0526 6.96052 -1.65135
17.796 6.78961 -1.62483
17.9049 6.76079 -1.63308
17.5479 6.55537 -1.59732
18.002 6.65465 -1.63781
17.4435 6.3783 -1.58339
17.7818 6.43284 -1.61308
17.7932 6.36615 -1.61182
17.9033 6.33611 -1.62024
17.8315 6.24017 -1.61131
17.5422 6.07116 -1.58277
18.0046 6.16036 -1.62335
18.0841 6.11811 -1.62898
18.1339 6.06391 -1.63138
18.1453 5.99828 -1.63073
18.1379 5.92512 -1.6279
18.1051 5.8454 -1.62324
17.9947 5.73984 -1.61099
18.2006 5.73648 -1.6283
17.9182 5.57822 -1.60036
18.2077 5.59962 -1.62533
18.2311 5.53667 -1.62546
18.2195 5.46459 -1.62289
18.126 5.36711 -1.61238
18.2515 5.3359 -1.62237
18.5018 5.33853 -1.64323
18.1867 5.17963 -1.61312
18.4732 5.19118 -1.6373
18.4335 5.11142 -1.63229
18.4341 5.04184 -1.6305
18.7437 5.05705 -1.65722
18.2973 4.86774 -1.61498
18.5685 4.87119 -1.63821
19.0233 4.91919 -1.67755
18.6444 4.75258 -1.64204
18.5161 4.65065 -1.62874
18.4043 4.55508 -1.61746
18.6429 4.54467 -1.63728
18.3891 4.41554 -1.61327
18.6236 4.40276 -1.63274
18.6756 4.34693 -1.63628
18.8519 4.31831 -1.65052
18.5888 4.19043 -1.62581
18.9691 4.20631 -1.65836
18.3528 4.00317 -1.60211
18.3707 3.93958 -1.60223
18.852 3.97464 -1.6443
18.7975 3.89431 -1.63797
19.2931 3.92737 -1.68126
19.2189 3.84213 -1.67318
18.796 3.69007 -1.63454
19.0456 3.6698 -1.65541
19.3303 3.65526 -1.67988
18.9042 3.50617 -1.64061
18.9554 3.44781 -1.64433
18.7967 3.35105 -1.62894
19.0947 3.33593 -1.65463
19.008 3.25224 -1.6457
18.7538 3.142 -1.6224
18.9456 3.10593 -1.63822
18.9721 3.04216 -1.6394
18.8565 2.95668 -1.62849
19.107 2.92743 -1.64954
19.3516 2.89625 -1.67053
19.3438 2.82596 -1.66875
19.1937 2.73614 -1.65488
18.9841 2.63859 -1.63532
19.5538 2.64857 -1.68508
18.9501 2.48855 -1.63019
19.3578 2.47352 -1.66529
19.0164 2.36296 -1.6348
19.3963 2.34159 -1.66747
19.2382 2.25441 -1.65273
19.3251 2.19635 -1.6596
19.5011 2.14749 -1.67431
19.1775 2.04462 -1.64558
19.4918 2.00941 -1.67249
19.3421 1.92583 -1.65862
19.0908 1.83356 -1.63587
19.4621 1.80086 -1.66783
19.5179 1.73775 -1.67256
19.363 1.65591 -1.65834
19.2159 1.57587 -1.64482
19.4953 1.53045 -1.66877
19.1628 1.43742 -1.63951
19.3942 1.38684 -1.65928
19.2141 1.3066 -1.64298
19.4074 1.25185 -1.65943
19.2267 1.17295 -1.64313
19.3977 1.1158 -1.65813
19.3816 1.04711 -1.65629
19.3473 0.977623 -1.65288
19.4521 0.91501 -1.66167
19.4334 0.846276 -1.65965
19.261 0.771708 -1.64468
19.2596 0.704408 -1.64423
19.1962 0.635145 -1.63838
19.6344 0.581284 -1.67645
19.234 0.502396 -1.64161
19.2336 0.43532 -1.64134
19.014 0.364116 -1.6219
19.3917 0.303831 -1.65473
19.5101 0.237752 -1.66492
19.3295 0.168217 -1.64943
19.5014 0.101804 -1.66431
19.5653 0.0340096 -1.66979
19.382 -0.0337895 -1.65366
19.4855 -0.101805 -1.66262
19.2856 -0.168003 -1.64556
19.4643 -0.237325 -1.66115
19.1845 -0.300686 -1.63665
19.261 -0.369002 -1.64335
19.2774 -0.436587 -1.64528
19.4113 -0.507192 -1.65703
19.3477 -0.572939 -1.65153
19.5367 -0.646615 -1.66816
19.2676 -0.704806 -1.64471
19.1853 -0.768875 -1.63811
19.1388 -0.833747 -1.63417
19.289 -0.907496 -1.64749
19.1524 -0.967836 -1.63572
19.4572 -1.05119 -1.66263
19.5489 -1.12472 -1.67136
19.8133 -1.20913 -1.69479
19.2225 -1.24008 -1.64328
19.1465 -1.30205 -1.63691
19.8274 -1.41821 -1.69739
19.5918 -1.46978 -1.67708
19.2073 -1.5081 -1.64369
19.5017 -1.59954 -1.66991
19.1487 -1.63754 -1.63931
19.1904 -1.70884 -1.64385
19.3014 -1.78637 -1.65404
19.8821 -1.90997 -1.70552
19.3004 -1.92174 -1.65488
19.2024 -1.97937 -1.64677
19.4826 -2.07735 -1.6724
18.9603 -2.08825 -1.62699
19.0579 -2.16606 -1.63613
19.3135 -2.26325 -1.6592
19.3647 -2.33809 -1.66479
19.2378 -2.39062 -1.65424
19.2925 -2.4656 -1.65971
1046.78 -9.39869 11.9974
1046.78 -9.39869 11.9974
1046.78 -9.39869 11.9974
1046.78 -9.39869 11.9974
1046.78 -9.39869 11.9974
1046.78 -9.39869 11.9974
1046.78 -9.39869 11.9974
1046.78 -9.39869 11.9974
1046.78 -9.39869 11.9974
1046.78 -9.39869 11.9974
1046.78 -9.39869 11.9974
1046.78 -9.39869 11.9974
1046.78 -9.39869 11.9974
1046.78 -9.39869 11.9974
1046.78 -9.39869 11.9974
1046.78 -9.39869 11.9974
1046.78 -9.39869 11.9974
1046.78 -9.39869 11.9974
1046.78 -9.39869 11.9974
1046.78 -9.39869 11.9974
1046.78 -9.39869 11.9974
1046.78 -9.39869 11.9974
1046.78 -9.39869 11.9974
1046.78 -9.39869 11.9974
1046.78 -9.39869 11.9974
1046.78 -9.39869 11.9974
1046.78 -9.39869 11.9974
1046.78 -9.39869 11.9974
1046.78 -9.39869 11.9974
1046.78 -9.39869 11.9974
1046.78 -9.39869 11.9974
1046.78 -9.39869 11.9974
1046.78 -9.39869 11.9974
1046.78 -9.39869 11.9974
1046.78 -9.39869 11.9974
1046.78 -9.39869 11.9974
1046.78 -9.39869 11.9974
1046.78 -9.39869 11.9974
1046.78 -9.39869 11.9974
1046.78 -9.39869 11.9974
1046.78 -9.39869 11.9974
1046.78 -9.39869 11.9974
1046.78 -9.39869 11.9974
1046.78 -9.39869 11.9974
1046.78 -9.39869 11.9974
1046.78 -9.39869 11.9974
1046.78 -9.39869 11.9974
1046.78 -9.39869 11.9974
1046.78 -9.39869 11.9974
1046.78 -9.39869 11.9974
1046.78 -9.39869 11.9974
1046.78 -9.39869 11.9974
1046.78 -9.39869 11.9974
1046.78 -9.39869 11.9974
1046.78 -9.39869 11.9974
1046.78 -9.39869 11.9974
1046.78 -9.39869 11.9974
1046.78 -9.39869 11.9974
1046.78 -9.39869 11.9974
1046.78 -9.39869 11.9974
1046.78 -9.39869 11.9974
1046.78 -9.39869 11.9974
